-61.537060 47.532210 -10.00
-61.537010 47.532150 -10.00
-61.536950 47.532060 -10.00
-61.536920 47.532000 -10.00
-61.536890 47.531930 -10.00
-61.536870 47.531860 -10.00
-61.536800 47.531610 -10.00
-61.536760 47.531480 -10.00
-61.536740 47.531410 -10.00
-61.536710 47.531360 -10.00
-61.536670 47.531300 -10.00
-61.536630 47.531240 -10.00
-61.536450 47.531010 -10.00
-61.536420 47.530990 -10.00
-61.536330 47.530920 -10.00
-61.536270 47.530880 -10.00
-61.536210 47.530850 -10.00
-61.536140 47.530830 -10.00
-61.536080 47.530820 -10.00
-61.536000 47.530800 -10.00
-61.535920 47.530800 -10.00
-61.535800 47.530790 -10.00
-61.535750 47.530790 -10.00
-61.535650 47.530800 -10.00
-61.535570 47.530820 -10.00
-61.535470 47.530850 -10.00
-61.535280 47.530920 -10.00
-61.535150 47.530980 -10.00
-61.535080 47.531010 -10.00
-61.534990 47.531050 -10.00
-61.534900 47.531110 -10.00
-61.534690 47.531230 -10.00
-61.534530 47.531340 -10.00
-61.534480 47.531390 -10.00
-61.534150 47.531680 -10.00
-61.534090 47.531740 -10.00
-61.534050 47.531760 -10.00
-61.533870 47.531880 -10.00
-61.533640 47.532040 -10.00
-61.533530 47.532100 -10.00
-61.533490 47.532120 -10.00
-61.533410 47.532160 -10.00
-61.533230 47.532260 -10.00
-61.533120 47.532330 -10.00
-61.532990 47.532410 -10.00
-61.532870 47.532490 -10.00
-61.532690 47.532620 -10.00
-61.532510 47.532760 -10.00
-61.532430 47.532840 -10.00
-61.532260 47.533020 -10.00
-61.532230 47.533040 -10.00
-61.532100 47.533200 -10.00
-61.531970 47.533370 -10.00
-61.531870 47.533470 -10.00
-61.531840 47.533490 -10.00
-61.531750 47.533550 -10.00
-61.531690 47.533580 -10.00
-61.531590 47.533620 -10.00
-61.531490 47.533650 -10.00
-61.531440 47.533650 -10.00
-61.531390 47.533650 -10.00
-61.531340 47.533650 -10.00
-61.531290 47.533640 -10.00
-61.531250 47.533630 -10.00
-61.531210 47.533620 -10.00
-61.531170 47.533600 -10.00
-61.531080 47.533530 -10.00
-61.531000 47.533460 -10.00
-61.530980 47.533430 -10.00
-61.530930 47.533350 -10.00
-61.530830 47.533180 -10.00
-61.530790 47.533090 -10.00
-61.530740 47.532970 -10.00
-61.530690 47.532840 -10.00
-61.530660 47.532730 -10.00
-61.530660 47.532720 -10.00
-61.530680 47.532500 -10.00
-61.530680 47.532340 -10.00
-61.530650 47.532100 -10.00
-61.530630 47.532010 -10.00
-61.530620 47.532000 -10.00
-61.530590 47.531930 -10.00
-61.530360 47.531700 -10.00
-61.530270 47.531590 -10.00
-61.530190 47.531480 -10.00
-61.530110 47.531330 -10.00
-61.530040 47.531170 -10.00
-61.530000 47.531040 -10.00
-61.529990 47.530970 -10.00
-61.529960 47.530740 -10.00
-61.529930 47.530560 -10.00
-61.529910 47.530490 -10.00
-61.529870 47.530400 -10.00
-61.529850 47.530370 -10.00
-61.529820 47.530350 -10.00
-61.529750 47.530330 -10.00
-61.529500 47.530330 -10.00
-61.529370 47.530350 -10.00
-61.529250 47.530380 -10.00
-61.529140 47.530440 -10.00
-61.529020 47.530540 -10.00
-61.528960 47.530610 -10.00
-61.528930 47.530700 -10.00
-61.528880 47.530950 -10.00
-61.528790 47.531210 -10.00
-61.528720 47.531440 -10.00
-61.528720 47.531510 -10.00
-61.528740 47.531610 -10.00
-61.528870 47.531830 -10.00
-61.528990 47.532090 -10.00
-61.529120 47.532280 -10.00
-61.529160 47.532380 -10.00
-61.529170 47.532450 -10.00
-61.529170 47.532540 -10.00
-61.529140 47.532660 -10.00
-61.529040 47.532850 -10.00
-61.528990 47.532930 -10.00
-61.528960 47.532970 -10.00
-61.528930 47.533020 -10.00
-61.528900 47.533070 -10.00
-61.528870 47.533100 -10.00
-61.528830 47.533130 -10.00
-61.528790 47.533160 -10.00
-61.528690 47.533220 -10.00
-61.528630 47.533250 -10.00
-61.528540 47.533280 -10.00
-61.528450 47.533310 -10.00
-61.528320 47.533330 -10.00
-61.528260 47.533330 -10.00
-61.528090 47.533330 -10.00
-61.528010 47.533330 -10.00
-61.527940 47.533320 -10.00
-61.527870 47.533310 -10.00
-61.527730 47.533280 -10.00
-61.527650 47.533260 -10.00
-61.527500 47.533220 -10.00
-61.527250 47.533150 -10.00
-61.527090 47.533120 -10.00
-61.526870 47.533080 -10.00
-61.526610 47.533040 -10.00
-61.526480 47.533020 -10.00
-61.526370 47.532990 -10.00
-61.525600 47.532720 -10.00
-61.525480 47.532670 -10.00
-61.525250 47.532540 -10.00
-61.525080 47.532490 -10.00
-61.524880 47.532460 -10.00
-61.524520 47.532430 -10.00
-61.523850 47.532440 -10.00
-61.523760 47.532450 -10.00
-61.523690 47.532470 -10.00
-61.523660 47.532490 -10.00
-61.523620 47.532540 -10.00
-61.523540 47.532630 -10.00
-61.523480 47.532670 -10.00
-61.523410 47.532700 -10.00
-61.523160 47.532730 -10.00
-61.523000 47.532770 -10.00
-61.522720 47.532820 -10.00
-61.522510 47.532860 -10.00
-61.522320 47.532890 -10.00
-61.521950 47.532930 -10.00
-61.521760 47.532960 -10.00
-61.521510 47.533000 -10.00
-61.521360 47.533020 -10.00
-61.520970 47.533080 -10.00
-61.520420 47.533160 -10.00
-61.520340 47.533180 -10.00
-61.520280 47.533210 -10.00
-61.520250 47.533230 -10.00
-61.520230 47.533250 -10.00
-61.520220 47.533270 -10.00
-61.520200 47.533310 -10.00
-61.520190 47.533370 -10.00
-61.520190 47.533440 -10.00
-61.520190 47.533480 -10.00
-61.520200 47.533540 -10.00
-61.520220 47.533590 -10.00
-61.520240 47.533660 -10.00
-61.520270 47.533730 -10.00
-61.520300 47.533820 -10.00
-61.520360 47.534000 -10.00
-61.520360 47.534090 -10.00
-61.520360 47.534150 -10.00
-61.520340 47.534190 -10.00
-61.520160 47.534330 -10.00
-61.520010 47.534450 -10.00
-61.519950 47.534500 -10.00
-61.519780 47.534680 -10.00
-61.519740 47.534710 -10.00
-61.519700 47.534750 -10.00
-61.519650 47.534790 -10.00
-61.519480 47.534910 -10.00
-61.519410 47.534960 -10.00
-61.519340 47.534990 -10.00
-61.519290 47.535020 -10.00
-61.519160 47.535060 -10.00
-61.518970 47.535120 -10.00
-61.518710 47.535180 -10.00
-61.518660 47.535190 -10.00
-61.518470 47.535220 -10.00
-61.518370 47.535230 -10.00
-61.518110 47.535260 -10.00
-61.518020 47.535270 -10.00
-61.517930 47.535290 -10.00
-61.517670 47.535330 -10.00
-61.517500 47.535350 -10.00
-61.517400 47.535370 -10.00
-61.517300 47.535400 -10.00
-61.517080 47.535450 -10.00
-61.516910 47.535490 -10.00
-61.516650 47.535560 -10.00
-61.516590 47.535580 -10.00
-61.516420 47.535630 -10.00
-61.516300 47.535660 -10.00
-61.516160 47.535710 -10.00
-61.516020 47.535770 -10.00
-61.515900 47.535810 -10.00
-61.515840 47.535840 -10.00
-61.515720 47.535890 -10.00
-61.515460 47.536010 -10.00
-61.515390 47.536040 -10.00
-61.515130 47.536150 -10.00
-61.514960 47.536240 -10.00
-61.514700 47.536370 -10.00
-61.514650 47.536400 -10.00
-61.514390 47.536520 -10.00
-61.514350 47.536540 -10.00
-61.514200 47.536610 -10.00
-61.514080 47.536660 -10.00
-61.513900 47.536720 -10.00
-61.513640 47.536820 -10.00
-61.513620 47.536830 -10.00
-61.513420 47.536890 -10.00
-61.513170 47.536960 -10.00
-61.512950 47.537030 -10.00
-61.512770 47.537070 -10.00
-61.512510 47.537130 -10.00
-61.512470 47.537140 -10.00
-61.512220 47.537200 -10.00
-61.511970 47.537280 -10.00
-61.511880 47.537320 -10.00
-61.511640 47.537380 -10.00
-61.511500 47.537440 -10.00
-61.511430 47.537470 -10.00
-61.511360 47.537510 -10.00
-61.511220 47.537600 -10.00
-61.511140 47.537660 -10.00
-61.511110 47.537690 -10.00
-61.511090 47.537720 -10.00
-61.511030 47.537810 -10.00
-61.511020 47.537830 -10.00
-61.510960 47.537990 -10.00
-61.510950 47.538050 -10.00
-61.510950 47.538090 -10.00
-61.510960 47.538180 -10.00
-61.510970 47.538230 -10.00
-61.510980 47.538280 -10.00
-61.511020 47.538420 -10.00
-61.511040 47.538590 -10.00
-61.511040 47.538640 -10.00
-61.511030 47.538730 -10.00
-61.511020 47.538780 -10.00
-61.511010 47.538820 -10.00
-61.511000 47.538870 -10.00
-61.510960 47.538950 -10.00
-61.510910 47.539020 -10.00
-61.510830 47.539110 -10.00
-61.510740 47.539220 -10.00
-61.510500 47.539390 -10.00
-61.510460 47.539420 -10.00
-61.510320 47.539480 -10.00
-61.510210 47.539520 -10.00
-61.510090 47.539570 -10.00
-61.509930 47.539610 -10.00
-61.509670 47.539660 -10.00
-61.509660 47.539660 -10.00
-61.509460 47.539690 -10.00
-61.509270 47.539710 -10.00
-61.509010 47.539740 -10.00
-61.508970 47.539740 -10.00
-61.508860 47.539750 -10.00
-61.508750 47.539750 -10.00
-61.508610 47.539750 -10.00
-61.508350 47.539750 -10.00
-61.508270 47.539750 -10.00
-61.508010 47.539750 -10.00
-61.507930 47.539750 -10.00
-61.507820 47.539740 -10.00
-61.507570 47.539710 -10.00
-61.507480 47.539710 -10.00
-61.507310 47.539680 -10.00
-61.507240 47.539670 -10.00
-61.507110 47.539640 -10.00
-61.506860 47.539550 -10.00
-61.506710 47.539500 -10.00
-61.506500 47.539420 -10.00
-61.506360 47.539350 -10.00
-61.506140 47.539240 -10.00
-61.506030 47.539190 -10.00
-61.505770 47.539080 -10.00
-61.505550 47.538990 -10.00
-61.505440 47.538960 -10.00
-61.505390 47.538940 -10.00
-61.505330 47.538930 -10.00
-61.505230 47.538910 -10.00
-61.505130 47.538900 -10.00
-61.505040 47.538890 -10.00
-61.504890 47.538880 -10.00
-61.504730 47.538880 -10.00
-61.504650 47.538880 -10.00
-61.504580 47.538890 -10.00
-61.504320 47.538910 -10.00
-61.504190 47.538930 -10.00
-61.503930 47.538940 -10.00
-61.503900 47.538950 -10.00
-61.503650 47.538960 -10.00
-61.503430 47.538960 -10.00
-61.503260 47.538960 -10.00
-61.503110 47.538940 -10.00
-61.503020 47.538930 -10.00
-61.502930 47.538920 -10.00
-61.502850 47.538900 -10.00
-61.502710 47.538860 -10.00
-61.502640 47.538830 -10.00
-61.502490 47.538770 -10.00
-61.502410 47.538740 -10.00
-61.502330 47.538700 -10.00
-61.502250 47.538660 -10.00
-61.502130 47.538590 -10.00
-61.501870 47.538430 -10.00
-61.501800 47.538380 -10.00
-61.501590 47.538260 -10.00
-61.501480 47.538200 -10.00
-61.501340 47.538140 -10.00
-61.501220 47.538090 -10.00
-61.501090 47.538050 -10.00
-61.500840 47.537990 -10.00
-61.500780 47.537970 -10.00
-61.500600 47.537920 -10.00
-61.500480 47.537880 -10.00
-61.500210 47.537770 -10.00
-61.500000 47.537710 -10.00
-61.555730 47.528540 -10.00
-61.555830 47.528450 -10.00
-61.555930 47.528330 -10.00
-61.556010 47.528240 -10.00
-61.556050 47.528170 -10.00
-61.556110 47.528030 -10.00
-61.556250 47.527850 -10.00
-61.556280 47.527800 -10.00
-61.556360 47.527580 -10.00
-61.556430 47.527440 -10.00
-61.556450 47.527360 -10.00
-61.556460 47.527290 -10.00
-61.556450 47.527180 -10.00
-61.556450 47.527110 -10.00
-61.556430 47.527050 -10.00
-61.556390 47.526990 -10.00
-61.556350 47.526940 -10.00
-61.556300 47.526900 -10.00
-61.556200 47.526850 -10.00
-61.556120 47.526830 -10.00
-61.555910 47.526800 -10.00
-61.555130 47.526640 -10.00
-61.554210 47.526310 -10.00
-61.553800 47.526170 -10.00
-61.553460 47.526080 -10.00
-61.552760 47.525910 -10.00
-61.552550 47.525860 -10.00
-61.552240 47.525750 -10.00
-61.551820 47.525600 -10.00
-61.551640 47.525540 -10.00
-61.551460 47.525510 -10.00
-61.551350 47.525510 -10.00
-61.551230 47.525510 -10.00
-61.551090 47.525530 -10.00
-61.551040 47.525550 -10.00
-61.551010 47.525580 -10.00
-61.551000 47.525610 -10.00
-61.550990 47.525650 -10.00
-61.550990 47.525680 -10.00
-61.551000 47.525710 -10.00
-61.551170 47.525920 -10.00
-61.551220 47.525980 -10.00
-61.551290 47.526050 -10.00
-61.551470 47.526190 -10.00
-61.551720 47.526360 -10.00
-61.551990 47.526540 -10.00
-61.552310 47.526710 -10.00
-61.552850 47.527080 -10.00
-61.553020 47.527210 -10.00
-61.553100 47.527310 -10.00
-61.553170 47.527450 -10.00
-61.553230 47.527520 -10.00
-61.553300 47.527580 -10.00
-61.553540 47.527740 -10.00
-61.553710 47.527870 -10.00
-61.553780 47.527940 -10.00
-61.553830 47.528010 -10.00
-61.553850 47.528080 -10.00
-61.553860 47.528240 -10.00
-61.553860 47.528350 -10.00
-61.553870 47.528410 -10.00
-61.553900 47.528470 -10.00
-61.553930 47.528510 -10.00
-61.554040 47.528650 -10.00
-61.554090 47.528710 -10.00
-61.554110 47.528740 -10.00
-61.554110 47.528770 -10.00
-61.554100 47.528800 -10.00
-61.554100 47.528810 -10.00
-61.554010 47.528940 -10.00
-61.553940 47.529020 -10.00
-61.553890 47.529060 -10.00
-61.553730 47.529200 -10.00
-61.553500 47.529380 -10.00
-61.553440 47.529410 -10.00
-61.553360 47.529460 -10.00
-61.553270 47.529510 -10.00
-61.553180 47.529550 -10.00
-61.552930 47.529670 -10.00
-61.552920 47.529670 -10.00
-61.552770 47.529740 -10.00
-61.552700 47.529760 -10.00
-61.552520 47.529810 -10.00
-61.552440 47.529830 -10.00
-61.552360 47.529840 -10.00
-61.552280 47.529850 -10.00
-61.552220 47.529850 -10.00
-61.552170 47.529850 -10.00
-61.551920 47.529820 -10.00
-61.551730 47.529790 -10.00
-61.551530 47.529780 -10.00
-61.551390 47.529780 -10.00
-61.551240 47.529780 -10.00
-61.551120 47.529790 -10.00
-61.550920 47.529820 -10.00
-61.550840 47.529840 -10.00
-61.550770 47.529870 -10.00
-61.550690 47.529910 -10.00
-61.550590 47.529960 -10.00
-61.550530 47.530010 -10.00
-61.550290 47.530160 -10.00
-61.550080 47.530270 -10.00
-61.550050 47.530280 -10.00
-61.549940 47.530320 -10.00
-61.549790 47.530360 -10.00
-61.549590 47.530410 -10.00
-61.549340 47.530470 -10.00
-61.549250 47.530490 -10.00
-61.549050 47.530530 -10.00
-61.548790 47.530590 -10.00
-61.548780 47.530590 -10.00
-61.548590 47.530620 -10.00
-61.548450 47.530650 -10.00
-61.548320 47.530660 -10.00
-61.548210 47.530670 -10.00
-61.548090 47.530660 -10.00
-61.548000 47.530650 -10.00
-61.547940 47.530640 -10.00
-61.547890 47.530620 -10.00
-61.547840 47.530610 -10.00
-61.547720 47.530550 -10.00
-61.547680 47.530520 -10.00
-61.547650 47.530490 -10.00
-61.547590 47.530410 -10.00
-61.547580 47.530390 -10.00
-61.547540 47.530260 -10.00
-61.547530 47.530220 -10.00
-61.547520 47.530100 -10.00
-61.547520 47.530050 -10.00
-61.547550 47.529980 -10.00
-61.547570 47.529900 -10.00
-61.547620 47.529770 -10.00
-61.547670 47.529690 -10.00
-61.547710 47.529620 -10.00
-61.547740 47.529590 -10.00
-61.547780 47.529540 -10.00
-61.547890 47.529430 -10.00
-61.547920 47.529400 -10.00
-61.547940 47.529370 -10.00
-61.547950 47.529340 -10.00
-61.547960 47.529300 -10.00
-61.547960 47.529270 -10.00
-61.547950 47.529230 -10.00
-61.547870 47.529120 -10.00
-61.547860 47.529110 -10.00
-61.547870 47.528870 -10.00
-61.548010 47.528370 -10.00
-61.548070 47.528240 -10.00
-61.548280 47.527920 -10.00
-61.548480 47.527550 -10.00
-61.548780 47.527370 -10.00
-61.548840 47.527320 -10.00
-61.548920 47.527050 -10.00
-61.549080 47.526680 -10.00
-61.549110 47.526480 -10.00
-61.549090 47.526210 -10.00
-61.549020 47.526080 -10.00
-61.548920 47.526020 -10.00
-61.548690 47.526010 -10.00
-61.548630 47.526030 -10.00
-61.548580 47.526070 -10.00
-61.548520 47.526170 -10.00
-61.548420 47.526550 -10.00
-61.548310 47.526820 -10.00
-61.548140 47.527250 -10.00
-61.547990 47.527490 -10.00
-61.547870 47.527730 -10.00
-61.547620 47.527980 -10.00
-61.547560 47.528100 -10.00
-61.547500 47.528350 -10.00
-61.547410 47.528540 -10.00
-61.547010 47.529010 -10.00
-61.546910 47.529070 -10.00
-61.546810 47.529090 -10.00
-61.546550 47.529070 -10.00
-61.546460 47.529020 -10.00
-61.546150 47.528750 -10.00
-61.545890 47.528590 -10.00
-61.545530 47.528450 -10.00
-61.545390 47.528450 -10.00
-61.545260 47.528470 -10.00
-61.544940 47.528670 -10.00
-61.544750 47.528880 -10.00
-61.544650 47.529160 -10.00
-61.544600 47.529530 -10.00
-61.544510 47.529670 -10.00
-61.544250 47.529880 -10.00
-61.544120 47.529960 -10.00
-61.543790 47.530070 -10.00
-61.543360 47.530150 -10.00
-61.543260 47.530190 -10.00
-61.543190 47.530270 -10.00
-61.543190 47.530370 -10.00
-61.543200 47.530400 -10.00
-61.543240 47.530450 -10.00
-61.543270 47.530470 -10.00
-61.543310 47.530490 -10.00
-61.543380 47.530520 -10.00
-61.543470 47.530550 -10.00
-61.543540 47.530570 -10.00
-61.543660 47.530590 -10.00
-61.543880 47.530630 -10.00
-61.544140 47.530670 -10.00
-61.544250 47.530690 -10.00
-61.544500 47.530740 -10.00
-61.544610 47.530770 -10.00
-61.544860 47.530870 -10.00
-61.544900 47.530890 -10.00
-61.545120 47.530950 -10.00
-61.545330 47.531010 -10.00
-61.545400 47.531030 -10.00
-61.545500 47.531070 -10.00
-61.545640 47.531130 -10.00
-61.545710 47.531160 -10.00
-61.545770 47.531190 -10.00
-61.545890 47.531270 -10.00
-61.546000 47.531350 -10.00
-61.546090 47.531410 -10.00
-61.546170 47.531480 -10.00
-61.546300 47.531610 -10.00
-61.546350 47.531660 -10.00
-61.546400 47.531690 -10.00
-61.546440 47.531720 -10.00
-61.546530 47.531760 -10.00
-61.546650 47.531810 -10.00
-61.546710 47.531820 -10.00
-61.546790 47.531840 -10.00
-61.547000 47.531890 -10.00
-61.547120 47.531910 -10.00
-61.547260 47.531930 -10.00
-61.547520 47.531970 -10.00
-61.547590 47.531980 -10.00
-61.547690 47.531980 -10.00
-61.547820 47.531990 -10.00
-61.547870 47.531990 -10.00
-61.547950 47.531970 -10.00
-61.548040 47.531960 -10.00
-61.548210 47.531920 -10.00
-61.548330 47.531880 -10.00
-61.548390 47.531860 -10.00
-61.548460 47.531820 -10.00
-61.548550 47.531760 -10.00
-61.548670 47.531680 -10.00
-61.548760 47.531610 -10.00
-61.548860 47.531520 -10.00
-61.549050 47.531350 -10.00
-61.549100 47.531310 -10.00
-61.549150 47.531270 -10.00
-61.549200 47.531230 -10.00
-61.549240 47.531210 -10.00
-61.549320 47.531170 -10.00
-61.549410 47.531140 -10.00
-61.549480 47.531120 -10.00
-61.549550 47.531100 -10.00
-61.549630 47.531090 -10.00
-61.549720 47.531090 -10.00
-61.549870 47.531090 -10.00
-61.549920 47.531100 -10.00
-61.550080 47.531120 -10.00
-61.550180 47.531130 -10.00
-61.550270 47.531120 -10.00
-61.550360 47.531120 -10.00
-61.550430 47.531110 -10.00
-61.550480 47.531090 -10.00
-61.550570 47.531060 -10.00
-61.550830 47.530900 -10.00
-61.550940 47.530830 -10.00
-61.551090 47.530750 -10.00
-61.551240 47.530690 -10.00
-61.551300 47.530670 -10.00
-61.551350 47.530660 -10.00
-61.551420 47.530650 -10.00
-61.551510 47.530640 -10.00
-61.551590 47.530640 -10.00
-61.551680 47.530640 -10.00
-61.551760 47.530650 -10.00
-61.551910 47.530670 -10.00
-61.552040 47.530690 -10.00
-61.552090 47.530700 -10.00
-61.552260 47.530750 -10.00
-61.552430 47.530800 -10.00
-61.552680 47.530840 -10.00
-61.552710 47.530850 -10.00
-61.552850 47.530860 -10.00
-61.552930 47.530880 -10.00
-61.553010 47.530900 -10.00
-61.553190 47.530950 -10.00
-61.553250 47.530960 -10.00
-61.553450 47.531020 -10.00
-61.553510 47.531040 -10.00
-61.553770 47.531090 -10.00
-61.553910 47.531120 -10.00
-61.554080 47.531150 -10.00
-61.554290 47.531180 -10.00
-61.554700 47.531270 -10.00
-61.554890 47.531290 -10.00
-61.555100 47.531300 -10.00
-61.555180 47.531300 -10.00
-61.555250 47.531280 -10.00
-61.555290 47.531260 -10.00
-61.555320 47.531240 -10.00
-61.555340 47.531210 -10.00
-61.555350 47.531140 -10.00
-61.555340 47.531090 -10.00
-61.555320 47.531050 -10.00
-61.555270 47.530980 -10.00
-61.555200 47.530890 -10.00
-61.555030 47.530720 -10.00
-61.555000 47.530660 -10.00
-61.554980 47.530600 -10.00
-61.554970 47.530500 -10.00
-61.554980 47.530350 -10.00
-61.554990 47.530280 -10.00
-61.555050 47.530070 -10.00
-61.555100 47.529890 -10.00
-61.555110 47.529860 -10.00
-61.555170 47.529690 -10.00
-61.555200 47.529610 -10.00
-61.555230 47.529540 -10.00
-61.555270 47.529370 -10.00
-61.555310 47.529200 -10.00
-61.555360 47.529060 -10.00
-61.555420 47.528930 -10.00
-61.555440 47.528880 -10.00
-61.555510 47.528760 -10.00
-61.555560 47.528690 -10.00
-61.540270 47.531280 -10.00
-61.540340 47.531220 -10.00
-61.540410 47.531160 -10.00
-61.540470 47.531090 -10.00
-61.540540 47.530990 -10.00
-61.540620 47.530860 -10.00
-61.540700 47.530700 -10.00
-61.540860 47.530350 -10.00
-61.540920 47.530210 -10.00
-61.540990 47.529980 -10.00
-61.541020 47.529880 -10.00
-61.541050 47.529700 -10.00
-61.541070 47.529540 -10.00
-61.541060 47.529410 -10.00
-61.541010 47.529110 -10.00
-61.540990 47.529030 -10.00
-61.540970 47.528980 -10.00
-61.540930 47.528920 -10.00
-61.540890 47.528860 -10.00
-61.540820 47.528800 -10.00
-61.540720 47.528720 -10.00
-61.540570 47.528610 -10.00
-61.540480 47.528570 -10.00
-61.540400 47.528550 -10.00
-61.540260 47.528530 -10.00
-61.540090 47.528510 -10.00
-61.539970 47.528510 -10.00
-61.539860 47.528510 -10.00
-61.539770 47.528530 -10.00
-61.539720 47.528560 -10.00
-61.539700 47.528580 -10.00
-61.539660 47.528630 -10.00
-61.539650 47.528660 -10.00
-61.539650 47.528700 -10.00
-61.539660 47.528740 -10.00
-61.539850 47.529160 -10.00
-61.540090 47.529590 -10.00
-61.540190 47.529790 -10.00
-61.540210 47.529860 -10.00
-61.540220 47.529920 -10.00
-61.540220 47.529950 -10.00
-61.540200 47.530010 -10.00
-61.540160 47.530100 -10.00
-61.540100 47.530190 -10.00
-61.540030 47.530270 -10.00
-61.539960 47.530330 -10.00
-61.539900 47.530360 -10.00
-61.539630 47.530470 -10.00
-61.539130 47.530640 -10.00
-61.539090 47.530650 -10.00
-61.539010 47.530710 -10.00
-61.538920 47.530780 -10.00
-61.538880 47.530830 -10.00
-61.538820 47.530920 -10.00
-61.538800 47.530980 -10.00
-61.538790 47.531030 -10.00
-61.538780 47.531090 -10.00
-61.538790 47.531150 -10.00
-61.538800 47.531210 -10.00
-61.538850 47.531330 -10.00
-61.538910 47.531440 -10.00
-61.538970 47.531520 -10.00
-61.539010 47.531580 -10.00
-61.539070 47.531620 -10.00
-61.539140 47.531640 -10.00
-61.539180 47.531650 -10.00
-61.539280 47.531670 -10.00
-61.539480 47.531680 -10.00
-61.539580 47.531670 -10.00
-61.539650 47.531660 -10.00
-61.539790 47.531620 -10.00
-61.539910 47.531560 -10.00
-61.540010 47.531490 -10.00
-61.540100 47.531410 -10.00
-61.526030 47.523410 -10.00
-61.525890 47.523440 -10.00
-61.525710 47.523490 -10.00
-61.525430 47.523510 -10.00
-61.525170 47.523510 -10.00
-61.524870 47.523510 -10.00
-61.524670 47.523490 -10.00
-61.524530 47.523440 -10.00
-61.524380 47.523380 -10.00
-61.524290 47.523340 -10.00
-61.524290 47.523340 -10.00
-61.539910 47.523530 -10.00
-61.539960 47.523770 -10.00
-61.539970 47.523890 -10.00
-61.539960 47.523950 -10.00
-61.539950 47.524010 -10.00
-61.539890 47.524120 -10.00
-61.539790 47.524210 -10.00
-61.539660 47.524300 -10.00
-61.539540 47.524350 -10.00
-61.539240 47.524440 -10.00
-61.539190 47.524460 -10.00
-61.539140 47.524520 -10.00
-61.539100 47.524630 -10.00
-61.539040 47.524720 -10.00
-61.538980 47.524750 -10.00
-61.538890 47.524770 -10.00
-61.538540 47.524690 -10.00
-61.538050 47.524660 -10.00
-61.537690 47.524620 -10.00
-61.537500 47.524630 -10.00
-61.537260 47.524650 -10.00
-61.537160 47.524650 -10.00
-61.536980 47.524620 -10.00
-61.536790 47.524600 -10.00
-61.536630 47.524610 -10.00
-61.536500 47.524640 -10.00
-61.536440 47.524640 -10.00
-61.536390 47.524620 -10.00
-61.536350 47.524590 -10.00
-61.536320 47.524510 -10.00
-61.536230 47.524430 -10.00
-61.536100 47.524350 -10.00
-61.535820 47.524230 -10.00
-61.535800 47.524220 -10.00
-61.535790 47.524190 -10.00
-61.535790 47.524170 -10.00
-61.535790 47.524140 -10.00
-61.535820 47.524110 -10.00
-61.535840 47.524100 -10.00
-61.535880 47.524090 -10.00
-61.535990 47.524080 -10.00
-61.536030 47.524070 -10.00
-61.536180 47.523990 -10.00
-61.536260 47.523910 -10.00
-61.536290 47.523870 -10.00
-61.536320 47.523820 -10.00
-61.536330 47.523720 -10.00
-61.536320 47.523630 -10.00
-61.536240 47.523480 -10.00
-61.536130 47.523340 -10.00
-61.548860 47.525040 -10.00
-61.548880 47.525010 -10.00
-61.548890 47.524950 -10.00
-61.548880 47.524910 -10.00
-61.548860 47.524870 -10.00
-61.548830 47.524830 -10.00
-61.548790 47.524800 -10.00
-61.548730 47.524770 -10.00
-61.548660 47.524760 -10.00
-61.548560 47.524730 -10.00
-61.548400 47.524740 -10.00
-61.548310 47.524750 -10.00
-61.548190 47.524770 -10.00
-61.548110 47.524830 -10.00
-61.548070 47.524890 -10.00
-61.548070 47.524960 -10.00
-61.548120 47.525010 -10.00
-61.548170 47.525060 -10.00
-61.548230 47.525110 -10.00
-61.548320 47.525150 -10.00
-61.548420 47.525170 -10.00
-61.548510 47.525180 -10.00
-61.548620 47.525170 -10.00
-61.548730 47.525140 -10.00
-61.548820 47.525090 -10.00
-61.577820 47.623800 -10.00
-61.579600 47.623100 -10.00
-61.580270 47.622710 -10.00
-61.581780 47.621700 -10.00
-61.582700 47.621150 -10.00
-61.584090 47.620570 -10.00
-61.584860 47.620150 -10.00
-61.585590 47.619700 -10.00
-61.587470 47.618690 -10.00
-61.589050 47.617730 -10.00
-61.590340 47.617060 -10.00
-61.590930 47.616660 -10.00
-61.591670 47.615830 -10.00
-61.592160 47.615490 -10.00
-61.592700 47.615170 -10.00
-61.593270 47.614880 -10.00
-61.594850 47.614130 -10.00
-61.595800 47.613640 -10.00
-61.596730 47.613120 -10.00
-61.598310 47.612040 -10.00
-61.599910 47.611100 -10.00
-61.599920 47.611090 -10.00
-61.510010 47.533460 -10.00
-61.510010 47.533420 -10.00
-61.509990 47.533380 -10.00
-61.509970 47.533350 -10.00
-61.509900 47.533290 -10.00
-61.509860 47.533280 -10.00
-61.509780 47.533270 -10.00
-61.509570 47.533290 -10.00
-61.509090 47.533290 -10.00
-61.508580 47.533310 -10.00
-61.508440 47.533340 -10.00
-61.508340 47.533370 -10.00
-61.508270 47.533390 -10.00
-61.508220 47.533430 -10.00
-61.508200 47.533460 -10.00
-61.508160 47.533500 -10.00
-61.508130 47.533570 -10.00
-61.508180 47.533620 -10.00
-61.508260 47.533650 -10.00
-61.508430 47.533700 -10.00
-61.508580 47.533710 -10.00
-61.508920 47.533680 -10.00
-61.509610 47.533680 -10.00
-61.509720 47.533670 -10.00
-61.509810 47.533650 -10.00
-61.509890 47.533600 -10.00
-61.509950 47.533560 -10.00
-61.510000 47.533500 -10.00
-61.560370 47.610430 -0.60
-61.560330 47.609670 -2.80
-61.552700 47.607720 -2.90
-61.558510 47.609470 -3.00
-61.557330 47.611080 -3.10
-61.559910 47.610240 -3.20
-61.558470 47.608460 -3.20
-61.558270 47.609320 -3.20
-61.552440 47.606800 -3.20
-61.558300 47.608970 -3.30
-61.557760 47.607130 -3.60
-61.559390 47.609810 -3.70
-61.558930 47.609100 -3.80
-61.556720 47.606960 -4.00
-61.557920 47.607350 -4.10
-61.555870 47.606780 -4.20
-61.558640 47.608070 -4.20
-61.559450 47.610960 -4.20
-61.558400 47.607660 -4.60
-61.558750 47.611120 -4.70
-61.557790 47.609010 -4.70
-61.559060 47.610580 -5.20
-61.558050 47.608560 -5.50
-61.553230 47.607680 -5.50
-61.553260 47.608570 -5.50
-61.554240 47.609950 -5.60
-61.558040 47.608050 -5.70
-61.556240 47.610500 -5.90
-61.557170 47.607360 -6.00
-61.558410 47.610780 -6.10
-61.557270 47.610550 -6.10
-61.555480 47.610260 -6.20
-61.553430 47.608060 -6.20
-61.559520 47.610260 -6.30
-61.556120 47.607060 -6.30
-61.558280 47.609700 -6.40
-61.555000 47.609940 -6.50
-61.553590 47.607420 -6.50
-61.554330 47.609510 -6.70
-61.558850 47.609820 -7.00
-61.560170 47.610780 -2.00
-61.560200 47.610770 -2.00
-61.560230 47.610760 -2.00
-61.560260 47.610740 -2.00
-61.560300 47.610730 -2.00
-61.560320 47.610710 -2.00
-61.560330 47.610690 -2.00
-61.560340 47.610680 -2.00
-61.560350 47.610660 -2.00
-61.560340 47.610630 -2.00
-61.560330 47.610600 -2.00
-61.560320 47.610570 -2.00
-61.560310 47.610560 -2.00
-61.560280 47.610540 -2.00
-61.560260 47.610530 -2.00
-61.560230 47.610510 -2.00
-61.560180 47.610480 -2.00
-61.560150 47.610460 -2.00
-61.560140 47.610440 -2.00
-61.560130 47.610440 -2.00
-61.560100 47.610400 -2.00
-61.560090 47.610390 -2.00
-61.560090 47.610370 -2.00
-61.560090 47.610340 -2.00
-61.560100 47.610310 -2.00
-61.560120 47.610290 -2.00
-61.560130 47.610280 -2.00
-61.560150 47.610260 -2.00
-61.560190 47.610240 -2.00
-61.560220 47.610220 -2.00
-61.560270 47.610190 -2.00
-61.560310 47.610160 -2.00
-61.560340 47.610140 -2.00
-61.560410 47.610100 -2.00
-61.560440 47.610080 -2.00
-61.560450 47.610070 -2.00
-61.560480 47.610030 -2.00
-61.560500 47.610000 -2.00
-61.560510 47.609990 -2.00
-61.560530 47.609970 -2.00
-61.560560 47.609960 -2.00
-61.560590 47.609940 -2.00
-61.560600 47.609930 -2.00
-61.560640 47.609890 -2.00
-61.560670 47.609870 -2.00
-61.560670 47.609860 -2.00
-61.560710 47.609860 -2.00
-61.560750 47.609860 -2.00
-61.560790 47.609870 -2.00
-61.560840 47.609870 -2.00
-61.560880 47.609870 -2.00
-61.560920 47.609870 -2.00
-61.560970 47.609870 -2.00
-61.561010 47.609870 -2.00
-61.561050 47.609870 -2.00
-61.561090 47.609870 -2.00
-61.561130 47.609860 -2.00
-61.561220 47.609860 -2.00
-61.559260 47.611530 -2.00
-61.559320 47.611520 -2.00
-61.559340 47.611510 -2.00
-61.559370 47.611510 -2.00
-61.559390 47.611520 -2.00
-61.559410 47.611520 -2.00
-61.559450 47.611520 -2.00
-61.559490 47.611530 -2.00
-61.559510 47.611530 -2.00
-61.559540 47.611540 -2.00
-61.559600 47.611550 -2.00
-61.559630 47.611550 -2.00
-61.559650 47.611550 -2.00
-61.559680 47.611540 -2.00
-61.559700 47.611530 -2.00
-61.559720 47.611510 -2.00
-61.559730 47.611480 -2.00
-61.559750 47.611430 -2.00
-61.559760 47.611420 -2.00
-61.559770 47.611400 -2.00
-61.559780 47.611380 -2.00
-61.559810 47.611350 -2.00
-61.559830 47.611330 -2.00
-61.559850 47.611320 -2.00
-61.559860 47.611310 -2.00
-61.559900 47.611310 -2.00
-61.559930 47.611310 -2.00
-61.559960 47.611310 -2.00
-61.560040 47.611330 -2.00
-61.560120 47.611340 -2.00
-61.560170 47.611340 -2.00
-61.560180 47.611340 -2.00
-61.560210 47.611330 -2.00
-61.560240 47.611310 -2.00
-61.560270 47.611280 -2.00
-61.560280 47.611260 -2.00
-61.560300 47.611240 -2.00
-61.560300 47.611230 -2.00
-61.560290 47.611190 -2.00
-61.560280 47.611180 -2.00
-61.560260 47.611160 -2.00
-61.560260 47.611150 -2.00
-61.560240 47.611140 -2.00
-61.560200 47.611110 -2.00
-61.560160 47.611090 -2.00
-61.560120 47.611070 -2.00
-61.560080 47.611040 -2.00
-61.560050 47.611030 -2.00
-61.560040 47.611020 -2.00
-61.560020 47.611000 -2.00
-61.560020 47.610980 -2.00
-61.560020 47.610960 -2.00
-61.560020 47.610940 -2.00
-61.560040 47.610900 -2.00
-61.560060 47.610870 -2.00
-61.560080 47.610850 -2.00
-61.560080 47.610840 -2.00
-61.560100 47.610820 -2.00
-61.560110 47.610810 -2.00
-61.560110 47.610760 -5.00
-61.560120 47.610750 -5.00
-61.560150 47.610740 -5.00
-61.560170 47.610720 -5.00
-61.560170 47.610710 -5.00
-61.560180 47.610710 -5.00
-61.560180 47.610690 -5.00
-61.560180 47.610680 -5.00
-61.560170 47.610680 -5.00
-61.560150 47.610660 -5.00
-61.560100 47.610630 -5.00
-61.560090 47.610630 -5.00
-61.560010 47.610600 -5.00
-61.560000 47.610590 -5.00
-61.559960 47.610570 -5.00
-61.559920 47.610530 -5.00
-61.559910 47.610520 -5.00
-61.559890 47.610500 -5.00
-61.559870 47.610460 -5.00
-61.559870 47.610450 -5.00
-61.559860 47.610420 -5.00
-61.559850 47.610390 -5.00
-61.559840 47.610360 -5.00
-61.559810 47.610310 -5.00
-61.559790 47.610290 -5.00
-61.559750 47.610270 -5.00
-61.559750 47.610260 -5.00
-61.559710 47.610240 -5.00
-61.559670 47.610210 -5.00
-61.559670 47.610210 -5.00
-61.559620 47.610180 -5.00
-61.559580 47.610150 -5.00
-61.559540 47.610120 -5.00
-61.559490 47.610090 -5.00
-61.559430 47.610040 -5.00
-61.559390 47.610000 -5.00
-61.559380 47.609990 -5.00
-61.559370 47.609960 -5.00
-61.559370 47.609940 -5.00
-61.559380 47.609910 -5.00
-61.559380 47.609880 -5.00
-61.559380 47.609860 -5.00
-61.559360 47.609830 -5.00
-61.559340 47.609780 -5.00
-61.559330 47.609780 -5.00
-61.559280 47.609740 -5.00
-61.559270 47.609730 -5.00
-61.559230 47.609700 -5.00
-61.559170 47.609670 -5.00
-61.559150 47.609650 -5.00
-61.559090 47.609630 -5.00
-61.559080 47.609630 -5.00
-61.559040 47.609610 -5.00
-61.559000 47.609590 -5.00
-61.558980 47.609580 -5.00
-61.558950 47.609580 -5.00
-61.558930 47.609580 -5.00
-61.558910 47.609580 -5.00
-61.558900 47.609580 -5.00
-61.558850 47.609580 -5.00
-61.558810 47.609580 -5.00
-61.558790 47.609580 -5.00
-61.558750 47.609580 -5.00
-61.558700 47.609580 -5.00
-61.558660 47.609590 -5.00
-61.558590 47.609600 -5.00
-61.558550 47.609600 -5.00
-61.558530 47.609610 -5.00
-61.558500 47.609620 -5.00
-61.558480 47.609620 -5.00
-61.558470 47.609630 -5.00
-61.558450 47.609640 -5.00
-61.558410 47.609660 -5.00
-61.552620 47.606720 -5.00
-61.552620 47.606730 -5.00
-61.552640 47.606740 -5.00
-61.552660 47.606750 -5.00
-61.552680 47.606770 -5.00
-61.552700 47.606790 -5.00
-61.552720 47.606820 -5.00
-61.552740 47.606830 -5.00
-61.552760 47.606860 -5.00
-61.552800 47.606880 -5.00
-61.552830 47.606890 -5.00
-61.552880 47.606900 -5.00
-61.552910 47.606910 -5.00
-61.552950 47.606930 -5.00
-61.552970 47.606940 -5.00
-61.553000 47.606950 -5.00
-61.553030 47.606950 -5.00
-61.553050 47.606960 -5.00
-61.553080 47.606970 -5.00
-61.553110 47.606980 -5.00
-61.553130 47.606990 -5.00
-61.553150 47.607010 -5.00
-61.553170 47.607030 -5.00
-61.553180 47.607050 -5.00
-61.553180 47.607070 -5.00
-61.553180 47.607090 -5.00
-61.553180 47.607110 -5.00
-61.553180 47.607140 -5.00
-61.553180 47.607140 -5.00
-61.553170 47.607150 -5.00
-61.553170 47.607170 -5.00
-61.553170 47.607190 -5.00
-61.553160 47.607220 -5.00
-61.553140 47.607240 -5.00
-61.553130 47.607250 -5.00
-61.553130 47.607270 -5.00
-61.553110 47.607290 -5.00
-61.553100 47.607300 -5.00
-61.553090 47.607310 -5.00
-61.553060 47.607330 -5.00
-61.553040 47.607350 -5.00
-61.553010 47.607370 -5.00
-61.552990 47.607400 -5.00
-61.552960 47.607430 -5.00
-61.552930 47.607460 -5.00
-61.552910 47.607490 -5.00
-61.552890 47.607530 -5.00
-61.552870 47.607570 -5.00
-61.552860 47.607610 -5.00
-61.552830 47.607670 -5.00
-61.552830 47.607670 -5.00
-61.552810 47.607730 -5.00
-61.552800 47.607770 -5.00
-61.552780 47.607820 -5.00
-61.552770 47.607840 -5.00
-61.552750 47.607890 -5.00
-61.552740 47.607940 -5.00
-61.552720 47.607980 -5.00
-61.552710 47.608020 -5.00
-61.552700 47.608070 -5.00
-61.552700 47.608110 -5.00
-61.552700 47.608130 -5.00
-61.552700 47.608170 -5.00
-61.552700 47.608220 -5.00
-61.552700 47.608260 -5.00
-61.552710 47.608300 -5.00
-61.552720 47.608350 -5.00
-61.552740 47.608390 -5.00
-61.552760 47.608430 -5.00
-61.552790 47.608470 -5.00
-61.552820 47.608510 -5.00
-61.552850 47.608550 -5.00
-61.552860 47.608570 -5.00
-61.552870 47.608590 -5.00
-61.552880 47.608600 -5.00
-61.552900 47.608620 -5.00
-61.552920 47.608640 -5.00
-61.552940 47.608650 -5.00
-61.552980 47.608670 -5.00
-61.553010 47.608680 -5.00
-61.553030 47.608700 -5.00
-61.553080 47.608710 -5.00
-61.553100 47.608710 -5.00
-61.553110 47.608720 -5.00
-61.553140 47.608730 -5.00
-61.553160 47.608740 -5.00
-61.553170 47.608750 -5.00
-61.553180 47.608760 -5.00
-61.553190 47.608760 -5.00
-61.553200 47.608790 -5.00
-61.553220 47.608810 -5.00
-61.553220 47.608830 -5.00
-61.553220 47.608860 -5.00
-61.553230 47.608890 -5.00
-61.553240 47.608930 -5.00
-61.553260 47.608990 -5.00
-61.553270 47.609040 -5.00
-61.553280 47.609090 -5.00
-61.553300 47.609150 -5.00
-61.553310 47.609190 -5.00
-61.553320 47.609230 -5.00
-61.553330 47.609270 -5.00
-61.553350 47.609310 -5.00
-61.553360 47.609350 -5.00
-61.553370 47.609370 -5.00
-61.553380 47.609390 -5.00
-61.553400 47.609430 -5.00
-61.553420 47.609460 -5.00
-61.553460 47.609500 -5.00
-61.553470 47.609520 -5.00
-61.553490 47.609530 -5.00
-61.553510 47.609550 -5.00
-61.553530 47.609560 -5.00
-61.553550 47.609570 -5.00
-61.553570 47.609580 -5.00
-61.553610 47.609600 -5.00
-61.553660 47.609620 -5.00
-61.553700 47.609640 -5.00
-61.553750 47.609660 -5.00
-61.553760 47.609670 -5.00
-61.553780 47.609680 -5.00
-61.553800 47.609700 -5.00
-61.553810 47.609710 -5.00
-61.553830 47.609730 -5.00
-61.553840 47.609740 -5.00
-61.553840 47.609760 -5.00
-61.553850 47.609780 -5.00
-61.553860 47.609790 -5.00
-61.553860 47.609810 -5.00
-61.553870 47.609850 -5.00
-61.553880 47.609870 -5.00
-61.553890 47.609890 -5.00
-61.553900 47.609920 -5.00
-61.553910 47.609940 -5.00
-61.553930 47.609950 -5.00
-61.553950 47.609970 -5.00
-61.553980 47.610000 -5.00
-61.554020 47.610020 -5.00
-61.554040 47.610040 -5.00
-61.554070 47.610080 -5.00
-61.554100 47.610120 -5.00
-61.554130 47.610130 -5.00
-61.554150 47.610150 -5.00
-61.554180 47.610170 -5.00
-61.554220 47.610190 -5.00
-61.554270 47.610210 -5.00
-61.554310 47.610230 -5.00
-61.554330 47.610240 -5.00
-61.554360 47.610250 -5.00
-61.554410 47.610280 -5.00
-61.554410 47.610280 -5.00
-61.554450 47.610300 -5.00
-61.554480 47.610320 -5.00
-61.554500 47.610330 -5.00
-61.554520 47.610340 -5.00
-61.554530 47.610340 -5.00
-61.554540 47.610340 -5.00
-61.554550 47.610350 -5.00
-61.554560 47.610350 -5.00
-61.554580 47.610360 -5.00
-61.554610 47.610370 -5.00
-61.554660 47.610380 -5.00
-61.554720 47.610390 -5.00
-61.554780 47.610400 -5.00
-61.554830 47.610410 -5.00
-61.554860 47.610420 -5.00
-61.554880 47.610430 -5.00
-61.554950 47.610450 -5.00
-61.555030 47.610490 -5.00
-61.555100 47.610510 -5.00
-61.555170 47.610530 -5.00
-61.555240 47.610560 -5.00
-61.555310 47.610580 -5.00
-61.555330 47.610580 -5.00
-61.555360 47.610590 -5.00
-61.555420 47.610600 -5.00
-61.555490 47.610620 -5.00
-61.555560 47.610630 -5.00
-61.555640 47.610650 -5.00
-61.555710 47.610660 -5.00
-61.555770 47.610670 -5.00
-61.555830 47.610680 -5.00
-61.555880 47.610680 -5.00
-61.555920 47.610690 -5.00
-61.555970 47.610690 -5.00
-61.556010 47.610700 -5.00
-61.556060 47.610700 -5.00
-61.556100 47.610700 -5.00
-61.556130 47.610700 -5.00
-61.556210 47.610700 -5.00
-61.556290 47.610690 -5.00
-61.556350 47.610690 -5.00
-61.556400 47.610690 -5.00
-61.556450 47.610690 -5.00
-61.556480 47.610690 -5.00
-61.556490 47.610690 -5.00
-61.556550 47.610710 -5.00
-61.556610 47.610720 -5.00
-61.556670 47.610740 -5.00
-61.556720 47.610750 -5.00
-61.556770 47.610760 -5.00
-61.556820 47.610770 -5.00
-61.556870 47.610780 -5.00
-61.556930 47.610790 -5.00
-61.556990 47.610780 -5.00
-61.557040 47.610780 -5.00
-61.557100 47.610780 -5.00
-61.557140 47.610770 -5.00
-61.557190 47.610770 -5.00
-61.557240 47.610770 -5.00
-61.557290 47.610760 -5.00
-61.557330 47.610760 -5.00
-61.557380 47.610760 -5.00
-61.557430 47.610770 -5.00
-61.557480 47.610770 -5.00
-61.557520 47.610790 -5.00
-61.557570 47.610800 -5.00
-61.557610 47.610820 -5.00
-61.557640 47.610840 -5.00
-61.557650 47.610840 -5.00
-61.557670 47.610860 -5.00
-61.557690 47.610870 -5.00
-61.557700 47.610870 -5.00
-61.557710 47.610880 -5.00
-61.557720 47.610890 -5.00
-61.557740 47.610890 -5.00
-61.557750 47.610890 -5.00
-61.557770 47.610900 -5.00
-61.557800 47.610900 -5.00
-61.557830 47.610900 -5.00
-61.557880 47.610890 -5.00
-61.557930 47.610890 -5.00
-61.557990 47.610890 -5.00
-61.558060 47.610880 -5.00
-61.558120 47.610880 -5.00
-61.558160 47.610880 -5.00
-61.558180 47.610880 -5.00
-61.558200 47.610880 -5.00
-61.558230 47.610880 -5.00
-61.558250 47.610880 -5.00
-61.558270 47.610890 -5.00
-61.558300 47.610890 -5.00
-61.558340 47.610900 -5.00
-61.558370 47.610920 -5.00
-61.558400 47.610930 -5.00
-61.558420 47.610930 -5.00
-61.558440 47.610940 -5.00
-61.558450 47.610940 -5.00
-61.558460 47.610940 -5.00
-61.558500 47.610940 -5.00
-61.558540 47.610950 -5.00
-61.558610 47.610950 -5.00
-61.558660 47.610950 -5.00
-61.558700 47.610950 -5.00
-61.558770 47.610950 -5.00
-61.558830 47.610960 -5.00
-61.558880 47.610960 -5.00
-61.558910 47.610960 -5.00
-61.558940 47.610960 -5.00
-61.558960 47.610960 -5.00
-61.558980 47.610960 -5.00
-61.559000 47.610950 -5.00
-61.559020 47.610940 -5.00
-61.559030 47.610940 -5.00
-61.559040 47.610930 -5.00
-61.559050 47.610920 -5.00
-61.559060 47.610910 -5.00
-61.559070 47.610900 -5.00
-61.559070 47.610890 -5.00
-61.559080 47.610890 -5.00
-61.559090 47.610880 -5.00
-61.559110 47.610870 -5.00
-61.559120 47.610870 -5.00
-61.559140 47.610870 -5.00
-61.559160 47.610870 -5.00
-61.559180 47.610870 -5.00
-61.559190 47.610870 -5.00
-61.559220 47.610880 -5.00
-61.559230 47.610890 -5.00
-61.559250 47.610890 -5.00
-61.559280 47.610900 -5.00
-61.559310 47.610900 -5.00
-61.559330 47.610910 -5.00
-61.559360 47.610910 -5.00
-61.559390 47.610900 -5.00
-61.559420 47.610900 -5.00
-61.559440 47.610890 -5.00
-61.559460 47.610880 -5.00
-61.559480 47.610870 -5.00
-61.559510 47.610850 -5.00
-61.559520 47.610840 -5.00
-61.559560 47.610820 -5.00
-61.559610 47.610790 -5.00
-61.559650 47.610760 -5.00
-61.559700 47.610730 -5.00
-61.559720 47.610720 -5.00
-61.559730 47.610710 -5.00
-61.559750 47.610690 -5.00
-61.559760 47.610680 -5.00
-61.559760 47.610670 -5.00
-61.559770 47.610660 -5.00
-61.559770 47.610660 -5.00
-61.559770 47.610650 -5.00
-61.559780 47.610640 -5.00
-61.555190 47.606680 -5.00
-61.555220 47.606690 -5.00
-61.555260 47.606710 -5.00
-61.555300 47.606720 -5.00
-61.555350 47.606730 -5.00
-61.555390 47.606740 -5.00
-61.555440 47.606740 -5.00
-61.555490 47.606760 -5.00
-61.555550 47.606770 -5.00
-61.555590 47.606780 -5.00
-61.555630 47.606800 -5.00
-61.555660 47.606810 -5.00
-61.555710 47.606830 -5.00
-61.555780 47.606850 -5.00
-61.555850 47.606870 -5.00
-61.555930 47.606890 -5.00
-61.555980 47.606910 -5.00
-61.556060 47.606930 -5.00
-61.556130 47.606950 -5.00
-61.556200 47.606980 -5.00
-61.556270 47.607000 -5.00
-61.556350 47.607030 -5.00
-61.556420 47.607040 -5.00
-61.556480 47.607060 -5.00
-61.556550 47.607080 -5.00
-61.556610 47.607100 -5.00
-61.556670 47.607110 -5.00
-61.556760 47.607120 -5.00
-61.556840 47.607140 -5.00
-61.556920 47.607150 -5.00
-61.556980 47.607170 -5.00
-61.557000 47.607170 -5.00
-61.557060 47.607190 -5.00
-61.557070 47.607190 -5.00
-61.557130 47.607210 -5.00
-61.557190 47.607230 -5.00
-61.557250 47.607250 -5.00
-61.557320 47.607280 -5.00
-61.557320 47.607280 -5.00
-61.557380 47.607300 -5.00
-61.557430 47.607320 -5.00
-61.557480 47.607330 -5.00
-61.557530 47.607350 -5.00
-61.557570 47.607370 -5.00
-61.557610 47.607390 -5.00
-61.557640 47.607410 -5.00
-61.557670 47.607430 -5.00
-61.557700 47.607440 -5.00
-61.557730 47.607470 -5.00
-61.557740 47.607480 -5.00
-61.557770 47.607510 -5.00
-61.557790 47.607540 -5.00
-61.557810 47.607560 -5.00
-61.557840 47.607590 -5.00
-61.557880 47.607620 -5.00
-61.557910 47.607650 -5.00
-61.557940 47.607690 -5.00
-61.557960 47.607720 -5.00
-61.557990 47.607760 -5.00
-61.558010 47.607800 -5.00
-61.558030 47.607850 -5.00
-61.558050 47.607890 -5.00
-61.558070 47.607930 -5.00
-61.558090 47.607980 -5.00
-61.558110 47.608010 -5.00
-61.558140 47.608060 -5.00
-61.558160 47.608100 -5.00
-61.558170 47.608130 -5.00
-61.558190 47.608160 -5.00
-61.558210 47.608190 -5.00
-61.558220 47.608220 -5.00
-61.558230 47.608250 -5.00
-61.558230 47.608280 -5.00
-61.558230 47.608310 -5.00
-61.558220 47.608340 -5.00
-61.558210 47.608370 -5.00
-61.558190 47.608400 -5.00
-61.558180 47.608430 -5.00
-61.558170 47.608460 -5.00
-61.558170 47.608480 -5.00
-61.558170 47.608510 -5.00
-61.558170 47.608510 -5.00
-61.558170 47.608550 -5.00
-61.558160 47.608580 -5.00
-61.558150 47.608620 -5.00
-61.558130 47.608650 -5.00
-61.558110 47.608690 -5.00
-61.558090 47.608730 -5.00
-61.558060 47.608760 -5.00
-61.558030 47.608800 -5.00
-61.557990 47.608820 -5.00
-61.557960 47.608850 -5.00
-61.557930 47.608880 -5.00
-61.557900 47.608900 -5.00
-61.557870 47.608930 -5.00
-61.557850 47.608940 -5.00
-61.557830 47.608960 -5.00
-61.557820 47.608960 -5.00
-61.557800 47.608960 -5.00
-61.557790 47.608960 -5.00
-61.557770 47.608960 -5.00
-61.557750 47.608970 -5.00
-61.557730 47.608970 -5.00
-61.557710 47.608980 -5.00
-61.557690 47.608990 -5.00
-61.557680 47.609000 -5.00
-61.557660 47.609020 -5.00
-61.557650 47.609040 -5.00
-61.557640 47.609050 -5.00
-61.557640 47.609070 -5.00
-61.557640 47.609090 -5.00
-61.557640 47.609100 -5.00
-61.515740 47.629100 -0.40
-61.512910 47.626270 -0.40
-61.511790 47.625800 -0.60
-61.513520 47.627000 -0.70
-61.516120 47.629460 -0.70
-61.515250 47.628570 -0.90
-61.512000 47.626330 -1.20
-61.515570 47.629420 -1.20
-61.514370 47.628410 -1.20
-61.516170 47.629800 -1.30
-61.512740 47.626930 -1.30
-61.511410 47.626710 -1.40
-61.513340 47.627430 -1.40
-61.512480 47.627140 -1.40
-61.513010 47.627670 -1.40
-61.515040 47.627740 -1.50
-61.512180 47.627560 -1.60
-61.513110 47.628460 -1.60
-61.515610 47.628010 -1.60
-61.514940 47.627020 -1.60
-61.513870 47.628460 -1.70
-61.515400 47.627470 -1.70
-61.515210 47.628060 -1.70
-61.515070 47.627270 -1.70
-61.514690 47.630190 -1.80
-61.516290 47.630180 -1.80
-61.511750 47.627360 -1.80
-61.514680 47.628640 -1.80
-61.514340 47.627490 -1.80
-61.513970 47.627690 -1.80
-61.514910 47.627470 -1.80
-61.514710 47.627990 -1.90
-61.512440 47.628060 -1.90
-61.515610 47.627690 -1.90
-61.512880 47.628710 -2.00
-61.513770 47.627940 -2.00
-61.514080 47.627810 -2.10
-61.513770 47.629790 -2.20
-61.515050 47.629810 -2.30
-61.515510 47.630230 -2.30
-61.513080 47.629560 -2.40
-61.514510 47.629160 -2.40
-61.512780 47.628210 -2.40
-61.512980 47.629250 -2.50
-61.514410 47.627670 -2.50
-61.511710 47.627990 -2.60
-61.512680 47.627580 -2.60
-61.513110 47.628010 -2.60
-61.513910 47.630170 -2.70
-61.514080 47.628860 -2.70
-61.512380 47.628510 -2.70
-61.514580 47.629540 -2.80
-61.513710 47.629200 -2.80
-61.512210 47.629340 -2.90
-61.512940 47.630040 -3.10
-61.513410 47.628660 -3.10
-61.511250 47.630120 -3.10
-61.511450 47.628280 -3.40
-61.511750 47.628590 -3.40
-61.511480 47.629180 -3.40
-61.512480 47.629760 -3.50
-61.512340 47.628820 -3.60
-61.512080 47.630170 -3.70
-61.511450 47.629740 -3.90
-61.515240 47.630260 -2.00
-61.515190 47.630250 -2.00
-61.515030 47.630190 -2.00
-61.514930 47.630150 -2.00
-61.514820 47.630100 -2.00
-61.514670 47.630040 -2.00
-61.514570 47.630000 -2.00
-61.514470 47.629970 -2.00
-61.514380 47.629960 -2.00
-61.514330 47.629960 -2.00
-61.514280 47.629970 -2.00
-61.514240 47.629970 -2.00
-61.514220 47.629980 -2.00
-61.514200 47.629990 -2.00
-61.514180 47.630000 -2.00
-61.514160 47.630000 -2.00
-61.514150 47.630020 -2.00
-61.514140 47.630020 -2.00
-61.514130 47.630040 -2.00
-61.514120 47.630050 -2.00
-61.514110 47.630060 -2.00
-61.514110 47.630080 -2.00
-61.514100 47.630100 -2.00
-61.514100 47.630120 -2.00
-61.514100 47.630130 -2.00
-61.514110 47.630150 -2.00
-61.514110 47.630170 -2.00
-61.514120 47.630180 -2.00
-61.514140 47.630200 -2.00
-61.514150 47.630210 -2.00
-61.514170 47.630210 -2.00
-61.514180 47.630220 -2.00
-61.514200 47.630230 -2.00
-61.514220 47.630230 -2.00
-61.514260 47.630230 -2.00
-61.514310 47.630240 -2.00
-61.514320 47.630250 -2.00
-61.514340 47.630250 -2.00
-61.514360 47.630260 -2.00
-61.514380 47.630270 -2.00
-61.514400 47.630290 -2.00
-61.516300 47.630260 -2.00
-61.516250 47.630230 -2.00
-61.516220 47.630220 -2.00
-61.516150 47.630160 -2.00
-61.516080 47.630120 -2.00
-61.516050 47.630100 -2.00
-61.516000 47.630070 -2.00
-61.515890 47.630020 -2.00
-61.515860 47.630000 -2.00
-61.515840 47.629990 -2.00
-61.515810 47.629940 -2.00
-61.515770 47.629860 -2.00
-61.515710 47.629760 -2.00
-61.515700 47.629750 -2.00
-61.515680 47.629730 -2.00
-61.515660 47.629710 -2.00
-61.515630 47.629690 -2.00
-61.515590 47.629670 -2.00
-61.515490 47.629640 -2.00
-61.515450 47.629630 -2.00
-61.515430 47.629610 -2.00
-61.515400 47.629600 -2.00
-61.515380 47.629600 -2.00
-61.515370 47.629590 -2.00
-61.515370 47.629590 -2.00
-61.515370 47.629580 -2.00
-61.515370 47.629570 -2.00
-61.515370 47.629560 -2.00
-61.515370 47.629550 -2.00
-61.515370 47.629540 -2.00
-61.515370 47.629530 -2.00
-61.515360 47.629520 -2.00
-61.515340 47.629500 -2.00
-61.515300 47.629480 -2.00
-61.515260 47.629450 -2.00
-61.515220 47.629430 -2.00
-61.515170 47.629360 -2.00
-61.515130 47.629290 -2.00
-61.515100 47.629260 -2.00
-61.515080 47.629240 -2.00
-61.515060 47.629230 -2.00
-61.515040 47.629220 -2.00
-61.515020 47.629220 -2.00
-61.515010 47.629210 -2.00
-61.515000 47.629200 -2.00
-61.514980 47.629190 -2.00
-61.514970 47.629180 -2.00
-61.514950 47.629170 -2.00
-61.514930 47.629160 -2.00
-61.514910 47.629150 -2.00
-61.514890 47.629130 -2.00
-61.514870 47.629110 -2.00
-61.514850 47.629090 -2.00
-61.514840 47.629070 -2.00
-61.514840 47.629060 -2.00
-61.514840 47.629040 -2.00
-61.514830 47.629010 -2.00
-61.514820 47.628990 -2.00
-61.514810 47.628970 -2.00
-61.514800 47.628950 -2.00
-61.514780 47.628920 -2.00
-61.514750 47.628880 -2.00
-61.514720 47.628830 -2.00
-61.514690 47.628780 -2.00
-61.514670 47.628750 -2.00
-61.514630 47.628730 -2.00
-61.514520 47.628700 -2.00
-61.514400 47.628680 -2.00
-61.514290 47.628660 -2.00
-61.514180 47.628620 -2.00
-61.514090 47.628600 -2.00
-61.513610 47.628500 -2.00
-61.513520 47.628480 -2.00
-61.513380 47.628480 -2.00
-61.513280 47.628490 -2.00
-61.513180 47.628510 -2.00
-61.513080 47.628540 -2.00
-61.512960 47.628570 -2.00
-61.512910 47.628570 -2.00
-61.512870 47.628560 -2.00
-61.512850 47.628550 -2.00
-61.512840 47.628520 -2.00
-61.512850 47.628500 -2.00
-61.512860 47.628490 -2.00
-61.512910 47.628460 -2.00
-61.512990 47.628420 -2.00
-61.513050 47.628380 -2.00
-61.513110 47.628310 -2.00
-61.513160 47.628240 -2.00
-61.513200 47.628210 -2.00
-61.513230 47.628190 -2.00
-61.513360 47.628140 -2.00
-61.513380 47.628110 -2.00
-61.513410 47.628100 -2.00
-61.513440 47.628080 -2.00
-61.513490 47.628070 -2.00
-61.513570 47.628070 -2.00
-61.513650 47.628060 -2.00
-61.513850 47.628030 -2.00
-61.513970 47.627990 -2.00
-61.514220 47.627890 -2.00
-61.514300 47.627870 -2.00
-61.514430 47.627860 -2.00
-61.514470 47.627850 -2.00
-61.514490 47.627820 -2.00
-61.514510 47.627770 -2.00
-61.514560 47.627740 -2.00
-61.514600 47.627710 -2.00
-61.514650 47.627700 -2.00
-61.514690 47.627690 -2.00
-61.514710 47.627660 -2.00
-61.514720 47.627620 -2.00
-61.514720 47.627580 -2.00
-61.514700 47.627550 -2.00
-61.514660 47.627530 -2.00
